4.099481209807086524e-01 3.236004047598881606e+00 7.511650973666746944e-01
4.196861143623363266e-01 3.667016055313342626e+00 -6.660274683640107218e-01
1.064686621460237126e-01 2.195050149698373865e+00 4.332743971227646651e-01
-8.769035575734961119e-04 1.213717966268893722e+00 -7.406891633215963167e-02
-5.085910478791028089e-01 3.430360356664249100e+00 -1.427050867447874349e+00
3.720180564892672237e-02 2.449490358801828638e+00 -1.197637003237637998e+00
4.773989539111514468e-02 2.311609310186003852e-01 -8.398869860278400379e-02
-7.074637292957977608e-02 3.409412505849392705e+00 6.876560784905445534e-01
-3.798685899621521145e-01 3.304468250132320151e+00 -1.399933566455369149e+00
2.488508802488494098e-01 3.446200285968909149e+00 -5.378946267811908211e-01
6.480875443106901002e-02 2.823399252605356846e+00 -2.165567321219509012e+00
-1.453587927701428112e-02 8.468586669384868815e-01 8.203018310164034155e-02
-2.178273637232219506e-01 3.606045410583011979e+00 -1.636741770415116148e+00
7.294401487932294231e-03 2.487001473779251737e-01 9.466785320851246743e-02
8.985900637875639252e-03 6.033464072672564682e-02 -1.001222313445872536e-01
3.531677961239230133e-03 2.302383107577682608e+00 -4.065612680320062067e-01
9.696327957485989524e-02 1.687056847032609996e-01 -1.167527230522304865e-02
5.035874733254140923e-01 3.433431753490724603e+00 -1.641804020888858462e+00
-2.710349143174270448e-01 3.091170256714942610e+00 -4.264708372873970976e-01
5.014565312206665376e-02 2.997673330657827151e+00 -1.281146749737749113e+00
-3.084590614834881173e-01 2.724782858128514729e+00 7.113320956614845869e-01
-3.588549260906025856e-02 2.465000017332874993e+00 -1.600479726361348387e+00
-8.349131040440826990e-03 2.477831705204122770e+00 -1.265183415445989779e+00
4.905461225238835765e-01 2.966666111874554534e+00 6.208853367768010223e-01
7.329569048927229991e-02 5.616466355746917438e-01 -4.824313088136568395e-02
-3.327387410900072839e-01 2.386470845745792602e+00 5.095705379532787793e-01
-2.261578971573646180e-01 2.875134423116509463e+00 1.415198541958853529e+00
1.376140050457641817e-01 3.293390160965635083e+00 -1.317089139287639377e+00
1.566071738346428155e-01 3.886053074456523593e+00 -2.537882814376228868e-01
1.636336134166132758e-02 1.662872139520711112e+00 1.679082285032927335e-01
1.161491856263121084e-02 7.718543099289286724e-01 -8.375267319402436572e-02
1.330693576018175395e-01 2.157071843484953622e+00 4.905778806182047869e-01
1.706244135469196510e-01 3.401448318200931631e+00 -2.313034735550134058e-01
9.621550299849936094e-03 2.224082567523165466e+00 -1.976312462279735893e+00
6.663791480652606070e-02 1.118825860942611383e+00 -3.830626325501516882e-02
-2.223974000250863725e-01 3.367810774061529955e+00 -1.410123444094396827e+00
-2.497300870275936391e-01 2.249207841019247756e+00 -2.426064263020144107e+00
-9.837175404133254725e-03 2.492576050318233705e+00 -4.114108861866926370e-01
5.955414455215124470e-02 1.374724257874385014e+00 5.169015435602619668e-02
7.020051716094846683e-02 2.826326838026382404e+00 -2.183614015445292100e+00
-3.606101756040332451e-01 3.919207635746518203e+00 -2.186100357061654398e-01
1.180844369608563538e+00 2.847318214117781743e+00 1.211346398376594635e+00
-4.723228132288830733e-02 2.180567042936857991e+00 -4.820659410556591973e-01
-7.156862219544839199e-02 1.764025210290153023e+00 3.104135704471852053e-01
4.146407432074079857e-02 2.130956863366342713e+00 -4.977092524131644380e-01
-3.685936583978894343e-01 3.717727282330920868e+00 -1.750972846247629278e-01
-3.477301133380605314e-01 3.355512303012601727e+00 7.014152309878505243e-01
-5.231503040789373671e-01 3.488513049365526975e+00 -1.451201102942556664e+00
-2.848173391358779089e-02 2.469490217487754879e+00 -3.997817629887561175e-01
-6.353528697988752860e-02 2.459238283364804989e+00 -4.042891949007325070e-01
-2.669335647865506145e-01 2.785354679574632453e+00 7.878542024036685465e-01
6.891296895937294720e-03 2.523485283535829460e+00 -1.634896833597648591e+00
4.789948479203838816e-01 3.499578315352613878e+00 -1.730997168579444523e+00
-5.982398633488564960e-02 1.908037660267527302e+00 3.918001865477510059e-01
-3.321770296605590644e-01 3.143833449624020560e+00 -4.303079418899170006e-01
-1.386622192806194587e+00 2.316468453825574869e+00 3.938013818503177110e-01
-2.354044736656137615e-01 2.913229773820713575e+00 8.667909503781972003e-01
-2.051835631965959195e-01 3.784757585826309612e+00 -5.596470987033126399e-01
9.989763053757250155e-02 1.714972327746755454e-02 -1.044625667100794117e-02
-2.932851777080655031e-01 2.490982605856252086e+00 6.106989475849925464e-01
6.775282852167495429e-02 2.103929104139006245e+00 4.802043617635119443e-01
4.095193346558260727e-01 2.565947974683537858e+00 1.012002486354758313e+00
-8.317903260684732514e-01 3.332116414442157115e+00 -5.230276965597729921e-01
-1.057410054160299095e+00 3.171602884361517827e+00 9.802142620697040787e-01
-2.359416322364215474e-02 2.586593173969503834e+00 -1.147673982509964441e+00
-6.302256348046456069e-02 2.991450609958088869e+00 -1.247663642999164324e+00
6.634619427341896698e-03 1.731368163449128472e+00 -2.153132044327512595e+00
-3.605285744735912123e-01 3.934323980763238193e+00 -2.247193983724618260e-01
-5.520003365686619590e-02 1.689911184508746667e+00 -2.802976885254795936e-01
4.735222494360095125e-01 3.391422250954353235e+00 9.125224709580909144e-01
3.687696619745030047e-01 3.362917070416372223e+00 7.224842635196891960e-01
2.399656561939075283e-01 3.690437700105417385e+00 -1.190440688514845524e+00
-4.657706717012892184e-01 2.441141108002388371e+00 5.334488009942917053e-01
6.634939569660631975e-02 1.371058828453866063e+00 -8.981493961351932898e-02
-5.367409180247152689e-02 1.486494076190471247e+00 -1.765735294457228821e-01
-1.931097590534745778e-01 2.970262221432297345e+00 1.270687237727194052e+00
-5.211758478708367059e-02 1.156019830773499457e+00 -5.513174397718109687e-02
-9.165764035309714730e-02 2.553847338982064397e+00 -4.415854706118448880e-01
7.856912155981385371e-02 9.508168673173810204e-01 1.051096431595823291e-02
-9.455875781657570311e-02 2.018866286381030051e+00 3.374482822865949028e-01
-3.041973633650025058e-02 2.955090617141984399e+00 -1.226225577710394976e+00
-7.349180331524018950e-01 3.633825217550450848e+00 -5.945906330892387626e-01
1.018178941744183608e-01 3.194397795850541844e+00 -3.997474707433024133e-01
4.950863677593324297e-02 2.163246490065753758e+00 -6.212599312173430199e-01
8.109516106250122536e-02 8.658719005395915103e-03 -5.881734822029031917e-02
-4.723533154555611957e-02 4.925795681287109540e-01 7.991108979718788974e-02
-7.043049352391646256e-02 2.750505452569142584e+00 -4.576590459352569140e-01
2.872549782556674258e-02 1.960451413035316559e+00 3.802226044475468525e-01
7.656777697177477582e-02 3.160349930063235946e-01 5.577702269143765268e-02
3.135552671719707418e-01 3.770203924590583622e+00 -1.407318287737949758e+00
-2.445231401906928226e-01 2.764010182874725885e+00 7.263943532093091182e-01
-4.163680903066317718e-02 2.172872257695882325e+00 -6.834839050143213246e-01
-2.067316301289661429e-01 3.012796161374590387e+00 1.165433782473847657e+00
-8.026921398350241876e-01 3.290950153883672069e+00 -1.407214046946837716e+00
5.555301377274843855e-01 2.729755610082668760e+00 1.071537146787135519e+00
8.629538627707236675e-02 4.683625421867423921e-01 -2.911800679170718428e-02
-4.741958883088763510e-02 2.068067981723943127e+00 -5.006637513862612909e-01
5.002489454216995507e-02 1.323862465724676918e+00 -9.910359160767155673e-02
-2.381313313946434862e-01 3.759803382586974774e+00 -5.745453483470586153e-01
-2.064145655802580859e-01 2.143679138091561853e+00 4.896285749963392719e-01
-1.032240072757981020e+00 3.077472167396890335e+00 1.117661727562375695e+00
1.420322199608056377e-02 1.714701655947720393e+00 -1.881287908037682088e-01
8.704505995243776162e-02 2.863623898576506122e+00 -2.339471876709080966e+00
-9.744290780168177735e-01 3.032877789137232938e+00 9.072177557854701480e-01
-1.181341105817661913e-01 2.271755704382480534e+00 -2.309500290365364972e+00
-1.955230152713111347e-01 3.820072588622872356e+00 -5.803768777063529338e-01
-2.891214225272766281e-01 3.197554742097986402e+00 -4.621954289155584261e-01
-7.276393850664992780e-01 2.606804146148604673e+00 6.465438107709803317e-01
3.933818842149409273e-02 1.458506701524830085e+00 6.015833276853021355e-02
-2.673280807899322542e-01 3.096182916587259637e+00 -4.670503026918322309e-01
-8.901672495951312714e-02 4.467332562451070688e-01 1.498188561358640425e-02
4.999905205198413305e-01 2.713026276855962315e+00 1.046801579567890439e+00
-1.094968675284893334e-01 1.950249534223827297e+00 3.431707525203852027e-01
-2.597499680186878684e-02 2.796382513838621353e+00 -1.223585096967298780e+00
3.497940110828276494e-02 1.595181386515686750e+00 -2.516616452695941697e-01
4.722353414058443888e-01 2.673628118366712325e+00 1.020913198234629116e+00
4.089976315726068234e-01 3.651229523994004911e+00 -6.495101181232736387e-01
4.342980073714271250e-02 2.027951347259579151e+00 4.459930807736727787e-01
-8.053825665224451091e-02 1.490508033053269843e+00 1.206599487755356109e-01
-3.300047750240440170e-01 3.332266742833768447e+00 6.914232844451698723e-01
3.051162761430461015e-02 1.919366474825535018e+00 -2.337993826479328963e+00
-5.189364541256451940e-02 2.049491262663216240e+00 -4.708775225810670206e-01
-1.506575307883753490e-01 2.901618613363143862e+00 -4.588157525620947252e-01
1.505530812333279733e-01 3.366111909997757223e+00 6.286815907145141269e-01
-8.124600465600610721e-02 1.633947676598215493e+00 1.740388946470254883e-01
3.145664919906236423e-01 3.711175739829489562e+00 7.260215658213338141e-01
-6.058754084065329226e-02 2.033140977830270923e+00 3.630858133171267488e-01
1.086552703683797416e+00 2.904211718650244745e+00 1.235396149240558072e+00
-8.506364529924825835e-01 3.432180492510832792e+00 6.875791958640670165e-01
-1.146137517927808602e+00 2.603190601854263431e+00 5.411957169983377947e-01
-1.052614371249115388e+00 3.113151570899413301e+00 1.126334136511941919e+00
-4.461246353493316524e-02 1.504074496272127248e-01 8.625891829033288660e-02
-1.940721038154628181e-02 2.306215299374803518e+00 -1.805669731786612386e+00
6.390082980916914623e-01 3.550957815509625970e+00 9.713457810643547630e-01
5.047915326507727146e-02 3.078626101812621307e+00 -1.307747246322486845e+00
9.775625495935521408e-03 1.244068376367382767e+00 -7.855162334167900551e-02
-4.271004950398592237e-02 1.644302266146836500e+00 -1.629960027846573123e-01
1.536331578027533284e-01 3.918856885610138896e+00 -2.717693497187254059e-01
-3.899375682927982978e-01 3.508919235450480567e+00 8.100514056656885620e-01
2.527387809733346383e-02 1.714738396091364692e+00 2.321230691191761286e-01
-1.006900894173008654e+00 3.075977739316617665e+00 1.079162054816374283e+00
5.827649560150119368e-02 2.062689146349132141e+00 3.762975683180765918e-01
8.499893946562013802e-01 2.661778471372262533e+00 1.734212954265009321e+00
7.311301641882242408e-02 4.975427427258654056e-01 5.164904015374104790e-02
1.700176807075064744e-01 3.382099611874885614e+00 -1.320044904441070033e+00
-2.572006721913821514e-01 2.257052988617563649e+00 5.347704351421145308e-01
3.003722731054581652e-01 2.635476172928469918e+00 5.637675880210507584e-01
-7.795579209958038991e-01 2.692259616733056138e+00 6.298170340523836508e-01
8.655290118666522300e-03 2.412489582507401753e+00 -1.587284513212211312e+00
-7.121861567495355594e-01 3.803797652481535341e+00 -7.415019785367685801e-01
-9.189624889436810440e-01 2.606793213484548399e+00 6.205213701893459444e-01
-2.648491870458746789e-01 2.881638645306906277e+00 8.711230868097262769e-01
-8.360191097762869061e-01 2.856041141095503111e+00 7.337963438167598440e-01
-4.101353290364660453e-01 3.355524024806993744e+00 -1.412965875554669903e+00
-3.396220213658310838e-01 3.750626257451240786e+00 -2.436427121973598897e-01
1.207551987356079382e+00 2.950439148091616559e+00 1.271663442278734513e+00
1.548947092142293203e-01 2.200924171459809120e+00 5.175731818927843397e-01
-4.806406884670943458e-01 3.230842449383109383e+00 -4.631157861554245359e-01
3.559590216538903173e-01 3.751822851633749956e+00 -1.765391912178896905e-01
-4.541900156747806505e-02 1.094026095545851618e+00 6.150522257385380998e-02
-4.580313551122955351e-02 2.333741175751101959e+00 -8.803741971376672915e-01
-1.938850805073333017e-01 3.100208676482000048e+00 1.311750070928424439e+00
-4.984271633875367868e-01 2.440017654722001161e+00 5.522015549215950614e-01
-7.550088669559247567e-02 1.021710371652966520e+00 -1.766864333898020278e-02
-8.874174367209815284e-02 3.274984294337245139e+00 6.693254987799737155e-01
-7.945949424335863043e-01 2.758858538921698855e+00 6.509504813962152525e-01
2.818885872124206049e-01 3.420736752382307788e+00 -1.574599973615042670e+00
-1.128907696587601039e+00 2.618959250286676976e+00 5.536234380771203334e-01
-2.064001181463688828e-01 3.744185052120555746e+00 -1.467182481832314700e+00
-7.064298730957447453e-03 2.400893553974388528e+00 -1.231943909343535815e+00
3.043081256506809940e-01 2.520854307748438217e+00 5.739754294793800726e-01
5.136025205368842661e-01 2.660992930241515175e+00 1.014561176736553438e+00
3.195389636130278876e-02 4.816149324198876203e-01 -8.454508989562820043e-02
-4.069911893754978860e-01 2.458069762087248034e+00 5.791653890118823034e-01
-9.582908406061737550e-01 3.044154599780124482e+00 9.291851224016178801e-01
-5.621407827634707088e-02 1.142803015644558107e+00 -4.999815288128823393e-02
5.775119904113619196e-01 2.602547327446146586e+00 1.363123064367906423e+00
4.795856645029314969e-01 3.387796694175036816e+00 9.114140868532779605e-01
-3.340442015955318866e-01 2.411701205012483307e+00 5.696350311637174979e-01
-9.394501640045492818e-01 2.610411550426478655e+00 5.757624088650603600e-01
-1.146013099736166163e+00 2.577361877756479291e+00 5.705924337263628132e-01
4.951726772997929182e-01 2.970614433973209234e+00 6.116060609641921220e-01
3.964905401876358398e-02 1.226940415250358019e+00 6.133485798237529874e-02
7.452534981403198533e-02 2.852546306976893042e+00 -2.179486016040331542e+00
1.267126740707952975e-02 5.619641576639464731e-01 8.736766917962171530e-02
1.509531161827586815e-02 4.977125767177287274e-01 9.189077948380809657e-02
-6.272614549499065315e-03 2.000509180326321967e+00 -2.156936834557233507e+00
-1.529388925876949745e+00 2.780216234711551770e+00 8.200497884870645571e-01
4.475726049007219265e-01 3.208971242424313974e+00 1.472961568385492637e+00
-3.850984573090974333e-02 2.256018248294845652e+00 -2.179235799427880593e+00
-7.078110424105769037e-03 1.419396876559311682e+00 1.102934862439224062e-02
2.560972231297470314e-01 3.374300523756901260e+00 -1.496951369536494214e+00
-1.234729157170810776e-01 2.828349178606292202e+00 -4.067033934432318643e-01
-7.079342439795613950e-01 2.629878758128074256e+00 6.203064803370099689e-01
5.023717288879269161e-01 3.425643917854476861e+00 9.463739986631397594e-01
1.333185009225713591e-01 2.299405040466693251e+00 5.155917987818063875e-01
-8.631605533811292919e-02 4.028995268258289686e-01 -3.378156315575336216e-02
2.563057485561592852e-01 3.380558926831213284e+00 -1.545452834808970222e+00
-3.821271467871158178e-02 2.432789242551961273e+00 -1.071659747787081285e+00
2.476309422491636617e-02 2.800416694148982089e+00 -2.032469576894319729e+00
-2.436653071110844379e-02 2.287548600883690053e+00 -1.851285322604639960e+00
-2.001639095161752979e-03 2.932613672325065646e-01 -9.353641172784893376e-02
2.237543029958794644e-02 2.819769290119480409e+00 -1.202508767090346709e+00
4.002910975094752660e-02 2.019519122766256114e+00 -3.814483923616532879e-01
-4.113256533625583300e-01 3.474648313841629754e+00 5.677084284794989832e-01
-9.178064618406455155e-01 2.961859800905894069e+00 8.537173279893858213e-01
5.244329370864419387e-02 2.831384801815647556e+00 -2.087999357983034709e+00
-5.018422806561975008e-02 1.056643251720147170e+00 5.909598583081952794e-02
2.275780638630690023e-01 3.645897085905863921e+00 6.413229877171203186e-02
-7.209577518550933650e-01 2.631842071763196067e+00 5.989156407825856343e-01
-1.821403568661979500e-01 3.213745481418504468e+00 -1.376397862565041486e+00
4.693554366965076441e-01 3.543418711665208498e+00 1.110288716432232148e+00
1.741677401137923520e-01 3.257359733192416229e+00 -1.382354857321747232e+00
-2.086159373273662257e-02 2.686578562145714777e+00 -1.926298854313935438e+00
-3.140838295156263560e-01 3.534971645741684654e+00 -4.400821746957028768e-01
-2.419888031268316309e-02 2.297965850147143385e+00 -1.876214781544275789e+00
5.905419055152387742e-01 2.698326053365217359e+00 1.580179143656848195e+00
-2.108656769981517298e-01 3.379617170778267621e+00 -1.451196594692998332e+00
-3.523277662466774846e-02 1.880504969577008634e+00 -4.023364737682448289e-01
4.620073187304606366e-01 2.583931504557830383e+00 1.088361489849979824e+00
3.996751377347757539e-01 3.615199638415865113e+00 -6.283304887240135361e-01
-1.331436472127004889e+00 2.746287440688423231e+00 6.471944934753394163e-01
6.844543663636734054e-01 3.717222751936962943e+00 9.549494296114461322e-01
4.828060169495212439e-01 3.783955926375976997e+00 -1.747673445889027233e-01
-8.854855628424443403e-02 1.809848014260597493e+00 2.759868372999050856e-01
-3.938517085310040966e-01 3.821859023497942598e+00 -2.604173152069750447e-02
-9.757750722648328434e-01 3.394990774807276512e+00 -5.599191591019296865e-01
-8.345534477915247940e-02 2.658724511917812117e-01 4.588091029283220684e-02
2.957186329723976992e-01 3.738803003415017034e+00 7.377357323304067904e-01
1.507437475789837611e-01 3.713572682700009508e+00 -8.661498938207363718e-01
1.993200225207167331e-02 2.091944079733660367e+00 -2.031688361900268802e+00
7.067817800738525058e-01 3.308785426339425406e+00 5.899614534765575957e-01
3.587339069037095290e-02 2.441622461319192805e+00 -1.392893104883074828e+00
5.800003962585871531e-02 8.996061332217846207e-01 -5.624807114902128508e-02
1.778083859114056031e-01 3.592617394090648286e+00 2.949762744426602246e-01
-1.358913326371670276e-02 2.475469345085882455e+00 -1.224964438883892948e+00
-6.023618446343709937e-02 3.297344892111079506e+00 6.799837507120486402e-01
-3.321849010272984737e-01 3.542870943177239162e+00 -3.979190232535260163e-01
-1.939332399159396647e-01 2.975687634670062032e+00 -4.267867925794924799e-01
-2.935336902192897113e-01 3.717975289436796338e+00 -1.732836499776569950e+00
-2.954358243594105288e-02 2.908842035289552541e+00 -1.214619004520731460e+00
3.656792177921893705e-01 3.269368302485032629e+00 7.203258125787588284e-01
-7.112684968340932112e-02 1.327659535892299125e+00 -3.347179816830113397e-02
2.778633552400489037e-01 3.585701809121535799e+00 -1.301659452073251844e+00
-9.265305927984724965e-01 3.382426449151998415e+00 -5.644187015658385098e-01
1.975015095919428407e-02 1.650388082176371007e+00 2.453197091524242368e-01
2.790045703002415611e-01 2.484745710811808728e+00 5.499606863483965657e-01
2.583132901868504666e-02 2.837934693630695726e+00 -1.211213938379295918e+00
-4.182810390305035653e-01 3.501032810290714004e+00 5.835311125434136104e-01
-8.709145724071393202e-01 2.916344130103876164e+00 7.470041592429853550e-01
-3.614633282151509253e-01 3.916802163939539838e+00 -2.392664588655849522e-01
5.759504965592578962e-01 2.694277920548225236e+00 1.607919528417980137e+00
8.494776342681573666e-01 2.911533716907688252e+00 1.220167405113058212e+00
-5.377212766177028591e-01 3.513661089462459142e+00 -1.452911097412394437e+00
-7.739493479159239575e-01 3.797195275937249370e+00 -4.016476589294853405e-01
-6.672033647953391419e-03 1.675462702727960496e+00 -2.039470740284826444e+00
2.159413629104502130e-02 2.864055120626166850e+00 -1.211588417140614382e+00
-4.342344293121296050e-02 2.250943083891598029e+00 -7.078053859470265774e-01
4.457130355590946391e-02 1.601647463910385927e+00 -2.461982999542497441e-01
-5.005529424259856919e-01 2.463492168116617975e+00 5.424437428639660164e-01
4.798473163596929658e-01 2.644881901332267304e+00 9.663616323218156001e-01
1.017061814321003343e-02 1.721587779066806156e+00 -2.140885133727296719e+00
-2.669114921167933460e-02 2.521586188665914552e+00 -1.055497165285651961e+00
6.537178764571084655e-03 2.130955577627040132e+00 -4.557350524840029782e-01
-2.104598624617643604e-02 2.326335949285002425e+00 -1.842770699838176762e+00
4.986354937139459986e-01 3.452489154203492561e+00 9.479691652576098804e-01
6.583088149128071276e-01 2.850778999090912258e+00 1.160908060112071816e+00
1.447687699948614626e-01 3.712419324356157624e+00 -8.898970574300537617e-01
7.592268608547111941e-02 5.329409243642763139e-01 4.830208083646878037e-02
1.331624939375289363e-01 3.269534351677611195e+00 -4.485249328675824376e-01
1.485760796171841092e-01 3.299116583235063516e+00 -4.803373619285439822e-01
-7.680200012968503749e-03 1.994635706184081370e+00 -2.165617525311247515e+00
-1.054879073081618879e+00 3.228852502060156837e+00 1.023483657246069489e+00
4.006913189326586355e-01 2.911769290857658454e+00 6.327245677298150017e-01
-3.007784843367263261e-01 3.472394573125342276e+00 -4.118557146560327675e-01
-3.287859586876787921e-01 3.491657437733616032e+00 -4.160863010681793983e-01
-9.845818444139822767e-02 2.695895644039016048e+00 -1.895301802653926559e+00
-1.040856357128744185e-02 2.501098992273096844e+00 -1.590886753195796866e+00
7.829210589186431646e-01 3.744486878862808066e+00 5.215827542871265265e-01
1.964528278348564860e-01 3.480808287266163425e+00 -5.265204510875359095e-02
-3.078304908825222896e-01 3.578668829529958462e+00 -3.481370562017116477e-01
4.409595930894368021e-02 1.223864757809197013e+00 -5.341486164373698831e-02
2.015540145180190479e-01 3.803050614837838683e+00 1.446818456904856165e-01
-7.218407414347797202e-01 2.623581545693305372e+00 5.951905192041609949e-01
-8.853141926781092907e-01 3.373618141849710206e+00 -5.463615597848925365e-01
-1.861023087687484756e-01 3.057574358153603900e+00 1.268890816765986473e+00
-1.406081924062132282e+00 2.766392646035990666e+00 6.929522486134908066e-01
-6.613233478890440109e-02 1.295155275105982273e+00 -1.656392047450079910e-02
-6.309740296233624646e-01 2.523308928910671156e+00 6.160130060147460673e-01
-7.611238537261590109e-02 1.086572503924281285e+00 3.256457151383378851e-03
-4.050891620138878380e-01 3.482459322416526781e+00 5.234568590386532438e-01
7.554061823315465496e-01 3.576649779970950682e+00 5.388126934295147663e-01
-2.071857463512276620e-01 2.843900992782293802e+00 -2.160797742111859154e+00
3.716556782240173495e-01 2.726242824301587930e+00 6.091955394509940280e-01
-5.808099437520156116e-04 2.943724778935794983e+00 -4.334520695982100325e-01
-4.400374957042300916e-02 1.717828491800755364e+00 -2.094478548835520537e-01
5.923241137945213231e-01 2.828890262308854098e+00 1.101861739606634139e+00
-1.948301967476403218e-01 3.597619041412463137e+00 -1.473862769574159959e+00
-2.246806323406426442e-01 2.998289804970819095e+00 1.055566933523971240e+00
-7.681295899924490272e-03 1.849195845565474450e+00 -2.111464066642777748e+00
-7.565232697880125944e-03 2.241087528999520462e+00 -1.962298887354538390e+00
2.801334337750061021e-02 1.510762477155488837e+00 8.060115250803259745e-02
-5.415080006428751869e-02 2.599682486008118243e+00 -4.737833033415488893e-01
-9.859080408520217720e-01 3.188474694789309005e+00 6.340892420487630465e-01
-4.775624604090150660e-02 1.178885335573105708e+00 -5.776836668189401502e-02
1.593645158823595205e-03 2.378136647477306020e+00 -4.116684258721630685e-01
3.095856489737405237e-01 3.511558351846383985e+00 6.786018730945028166e-01
-3.171171567293896709e-01 3.840264072007004703e+00 -6.781371052576332659e-01
-2.640420875822601515e-02 2.856008583565105674e+00 -1.245159159533437254e+00
-3.896676427236749410e-03 1.978345064191845859e+00 -2.102241439309707083e+00
-8.874584823122672050e-04 2.556912188307358669e+00 -1.142619435321733157e+00
-1.381513922846431486e+00 2.286142615625511354e+00 3.638966231566069243e-01
-8.563861557300812832e-02 7.007037237597071311e-01 6.181974580954235909e-03
1.143365632733036458e-01 3.229708262317739553e+00 -1.334722898853520467e+00
-2.060006079485892649e-01 3.495930431947406714e+00 -1.496271487708419778e+00
-2.213015896066849175e-01 2.894205269202035247e+00 -2.216959086010463764e+00
1.026079111977296954e+00 3.255013657901164592e+00 3.549735470117074132e-01
-5.384212982971019884e-03 1.962917394337451160e+00 -2.102682298600518251e+00
8.233359717748726936e-02 3.770943404834558033e-01 -4.401464372601363029e-02
9.230045660039362665e-03 5.288124214011775681e-01 9.044162288274315564e-02
-1.056660179619010528e-02 1.376227190795796584e+00 9.705389114140365592e-03
-2.905774265864041750e-01 3.355529472322723805e+00 1.133509702421972687e+00
6.580334344121223367e-02 8.180051717915061138e-01 5.039546530660673346e-02
-1.895378486572842913e-01 3.002357900631533294e+00 1.194162649853265590e+00
-1.220800696328330215e+00 2.577135488802086094e+00 5.265449195629062773e-01
1.152370816550166571e-01 3.880894610743728546e+00 -5.797552417980701422e-01
-3.497223871510872217e-01 3.750023011903164338e+00 -2.432789645225134634e-01
3.745427847861497739e-01 3.143062659304950657e+00 7.161615740437474731e-01
-2.203486648242037604e-01 2.996049091165487344e+00 1.033081497560714324e+00
3.537541621904435329e-01 3.738086342160729547e+00 -1.720668153610279139e-01
-5.404034331007834258e-01 3.463303485341430399e+00 -1.449131071825555672e+00
-1.132169122226041845e-02 2.869109673920663184e+00 -3.862541676797536794e-01
-5.410963818597565311e-02 1.166697095248531824e+00 5.139714388363163244e-02
-8.304278234242294943e-01 3.345109178910812719e+00 -5.165917039855368875e-01
4.342438948473663352e-02 1.000226181264009639e+00 6.660687338050291784e-02
4.307578094722977480e-01 3.448147173288115930e+00 -1.654130422339762374e+00
-2.713550348982373683e-01 2.609846529517136915e+00 6.542476651781480301e-01
-5.718405003723441710e-02 2.692004762439293764e+00 -1.919867745752135146e+00
3.742654187135579513e-01 2.805199324259464611e+00 6.389502152435528881e-01
4.909475391702656233e-01 2.569386439413597234e+00 1.131921105915357328e+00
-6.260523786369032173e-02 2.638071087227519040e+00 -1.803082955943579258e+00
3.958829588385280318e-01 3.279836059756375377e+00 7.214210444248545517e-01
-5.980595016287362960e-03 2.995538155604404729e+00 -1.259584391814680959e+00
-3.406750050197408508e-01 3.355410743273215424e+00 6.618484575850636098e-01
-3.641576519589299066e-01 3.352436854395721255e+00 6.684606650565734220e-01
5.444737467704480194e-01 3.607975191146830962e+00 -6.184676362490337809e-01
-3.969215783454450169e-02 1.966502280358383592e+00 -4.386839672548841773e-01
-5.045750354489489387e-02 2.050331770339798076e+00 -4.614023495712629153e-01
4.150186428620579737e-01 3.222709668629568203e+00 7.399023630994205902e-01
7.047392412436715992e-01 3.203781087204028655e+00 5.321527912616615952e-01
1.779299153873320494e-01 3.547128138823698151e+00 1.790450119200101831e-01
-4.750274436035775150e-01 3.240480580683274603e+00 -4.536792910004852075e-01
-2.847681737168966665e-01 3.553774134220528680e+00 -4.811993226211068730e-01
-2.168428389264611886e-02 2.477051050495706619e+00 -1.427408999024993408e+00
1.755503189464454120e-02 2.071085629901006531e+00 -5.008430519866786668e-01
5.991372143656380489e-01 3.003630885266817430e+00 1.223850775839997240e+00
-1.376015553263218102e-02 2.404645114214964519e+00 -1.257301834056995027e+00
5.303941395013019727e-02 2.992341307970811659e+00 -3.805776496855194369e-01
4.911580761276511387e-02 1.390836504422565012e+00 -1.335858441036631705e-01
5.750744118695351181e-01 2.490803767760061849e+00 1.609711185427767477e+00
5.937236266495540260e-01 3.076417716284628234e+00 1.240208010577111608e+00
4.307878901032746732e-01 2.554774648237401191e+00 9.041165127922831113e-01
-3.713878471396463432e-01 2.435081654919249328e+00 5.488475384777929955e-01
-3.067738235959946436e-01 3.905491953250912474e+00 -7.964193134753123626e-01
6.949277772686290877e-01 2.657538416255988079e+00 1.539697840123786854e+00
3.334932479658440085e-01 2.608047617946752439e+00 6.026791437231047155e-01
4.274648838268431394e-02 1.543107707092937542e+00 1.364856950133221669e-01
6.633997797058018529e-03 1.901634412997524448e+00 3.286916266638025275e-01
2.636989467402753307e-01 2.587995377031577338e+00 5.896144388723062457e-01
2.484736615492705580e-01 3.363722072620667802e+00 -1.481158851979884616e+00
9.898429097105325702e-01 3.400166717263214178e+00 4.439431870296862703e-01
8.704009918296720660e-02 3.353641292030708154e+00 6.522872163173508708e-01
-2.385591745917085491e-02 2.216855806699423059e+00 -6.166377632800486008e-01
9.918066835993312180e-01 3.170271268618265914e+00 1.288239698849626524e+00
4.260567019306287229e-01 2.617812099320476982e+00 9.722650524107009362e-01
-5.824630196010498195e-02 1.288637206710746108e+00 -6.741843778469713833e-02
-3.912903525841851526e-02 2.255461504990986743e+00 -4.019921745950687519e-01
-4.142991610030709315e-02 3.604171566742919719e-02 9.017358762236274417e-02
-5.695649061193662488e-02 1.394530149904362082e+00 -1.232858303122096461e-01
-2.204689511697619508e-01 2.880296925987385404e+00 8.541334801037095970e-01
1.046973043726406524e-02 1.287313125082915510e+00 -6.258264858580758760e-02
-4.742734244696436563e-02 2.049592922641021886e+00 -4.693863622775744648e-01
-3.774674550322019706e-01 2.389574100164530979e+00 5.886594461698460012e-01
-2.018547560134888452e-01 3.014590999366890234e+00 1.219444948964431230e+00
-7.537061096675427008e-01 2.673001849893660964e+00 6.706004642408535110e-01
-2.344697258721185201e-02 2.594632747469415524e+00 -4.584685355529816153e-01
-2.851444906356097042e-01 3.185069337199620598e+00 -4.570117105455875905e-01
3.636472691072333008e-03 2.271409928613654206e+00 -6.984084702391016863e-01
-6.298089839702544768e-02 2.958005408381161772e+00 -1.255018129896688484e+00
5.776085474437435696e-01 3.094016639141710989e+00 1.261936631896065864e+00
3.880779609378136041e-01 3.556829291519094660e+00 1.223756081560972486e+00
5.478399961111519723e-01 2.727990368047917613e+00 1.709757948138325823e+00
-2.493015949783158880e-01 3.248928038003775942e+00 -1.360070927825972165e+00
-3.131084480326533637e-01 3.783682417937073161e+00 -6.225486066055897494e-01
3.801644377890189275e-01 3.226474778202622407e+00 7.513324865066483005e-01
1.828978905138873567e-01 3.387657854683443936e+00 -2.079709252995368685e-01
2.638412441194493696e-01 3.788673748015732645e+00 7.931411232723900584e-01
4.706685232565106514e-01 2.975583840757659804e+00 5.706577228206686225e-01
2.787248192413734338e-01 3.457522916718807959e+00 -5.704621270403354982e-01
7.162764461193033699e-03 1.201392276632906153e+00 7.431139428040763051e-02
-6.675007916475231839e-01 3.333571539530951977e+00 -4.845089824118720689e-01
1.073557147789352406e+00 2.897340858099813232e+00 1.227294705386348772e+00
5.344847723350026891e-01 2.493575180298573279e+00 1.449063778105259548e+00
1.874386551857469552e-01 2.383658936084481539e+00 5.593007559333111889e-01
1.179615787683080536e-01 2.156600343034552392e+00 4.260627877937787078e-01
-7.895153473200466898e-03 1.912997650790803306e+00 -2.303845997181319660e+00
-7.011790069786267843e-01 3.345071735342401098e+00 -1.421095693430337148e+00
4.033121597814798287e-02 5.226422868555836709e-01 8.106017282163810456e-02
2.584581479717690811e-01 3.660565409909453116e+00 -1.195389263487408593e+00
6.433354391534685385e-03 2.695869584508324035e+00 -1.190716869595411564e+00
8.656605320536120418e-01 2.972162374478605429e+00 1.234258995142184512e+00
2.920753286380284308e-02 1.929942418187355679e+00 -2.326436090012439895e+00
-3.315800318538184022e-02 2.754870085752295861e+00 -1.200612986525326331e+00
4.113525471237262920e-02 6.098731235254167826e-01 7.813696106292040977e-02
-3.681392458476145935e-01 2.804706529326005615e+00 -2.162353464531126868e+00
4.607678198364575373e-01 2.599615244097276179e+00 9.444484774605066413e-01
-5.788019294372126478e-01 3.345322731788705095e+00 -4.960137791946724328e-01
1.669348870644824304e-02 1.952905354804093996e+00 -2.084605172423130259e+00
-8.068603944871350908e-01 2.590632604144728734e+00 6.260397770046678412e-01
-6.958053830674986173e-01 3.584730292806093122e+00 -5.207228835118716814e-01
-6.909362905111393616e-02 2.991255856430998339e+00 -1.300504461351934538e+00
3.921527021125965629e-01 3.786515782321170587e+00 -1.673326987081501793e-01
-1.316777875593362568e+00 2.452663312720384070e+00 4.582897166593034033e-01
5.759167021200152226e-01 3.002195433973354532e+00 1.213653360423181615e+00
3.340376784282933498e-02 9.915338605359231838e-01 7.178239450034865077e-02
3.728841598278131997e-01 3.101315013551287247e+00 7.007907492968136198e-01
1.682234588908623069e-02 2.139323983862809087e+00 -1.983461027982355684e+00
1.810568086569042112e-02 2.426935656111048445e+00 -1.566460762092208636e+00
5.999756290076260212e-01 3.065111416221695251e+00 1.238810362963863376e+00
2.734615171435358233e-02 3.497618765754152426e-01 8.821467808940582078e-02
2.079390604360923100e-01 3.719398826195597696e+00 -1.791758204755069250e-01
9.660304098443149579e-02 2.845037112716092054e+00 -2.246615704501324196e+00
2.535319123035559841e-01 2.529791374370553125e+00 5.577127442689249204e-01
-1.663806242807695235e-01 2.262729385148783745e+00 -2.372272283411759997e+00
-1.815861320315537986e-01 2.185436804568192670e+00 4.904845262404382567e-01
1.079985939757416857e-01 3.116199229630402190e+00 -1.293427876015077027e+00
-1.153774017552194470e-01 2.794938307019113388e+00 -4.035262680801391388e-01
2.049107550285538815e-01 3.575009636051820650e+00 -6.025785320491724439e-01
2.579930392381959425e-01 3.386686793773579840e+00 -1.544951237025688373e+00
-9.975701541734598443e-01 3.433543427532990577e+00 -5.660302007022172122e-01
3.954745855908224916e-01 3.282398212550829086e+00 7.404143956872761834e-01
1.002780306106500374e+00 2.919049952562744465e+00 1.239538490326728137e+00
6.325660354791973194e-01 3.608500463999498198e+00 -6.296315647980127439e-01
-7.410336537709474869e-02 1.234353107672525596e+00 1.414373657151215408e-02
7.008886970236562208e-02 2.929079213452961294e+00 -2.156596592684346447e+00
-8.091703498155945473e-01 3.325782481295268322e+00 -5.270132827035142187e-01
-1.648764568256639099e-02 1.085752251742971852e+00 7.494717055426362851e-02
1.538264027197804584e-01 3.694788957308033250e+00 -7.466232865576605260e-01
-1.992519729998940003e-01 3.686339381718337194e+00 -1.463035811054627766e+00
8.044572797976062839e-02 6.335101930795015157e-01 -3.150157905420773730e-02
-5.434534665980442769e-01 3.368848274005952881e+00 -1.448989556472477735e+00
1.536428393443612095e-01 3.224966959156724045e+00 -1.316634570478626864e+00
4.078223096182365809e-02 2.306043690169731430e+00 -8.838242852741036160e-01
3.585863966470368980e-01 2.854980299581075354e+00 6.260608996252974290e-01
5.931680744528162741e-01 2.896503307410704497e+00 1.138422539914367704e+00
3.062989402203785128e-01 3.800486169181620522e+00 -1.423486543954535222e+00
9.117995964714457890e-03 2.124881962636549382e+00 -4.986601962234500918e-01
3.207178967576853612e-01 3.663905519115878029e+00 7.266635020272502743e-01
3.254983863550969247e-01 3.728084396082420593e+00 -1.378751157306310482e+00
-3.393005584317962398e-01 2.804102274438094788e+00 -2.142180876981422788e+00
-2.800322363183611052e-01 3.747748549087420944e+00 -5.963313824053648737e-01
4.368231612783176065e-01 3.795634219334311776e+00 -6.803408928008175538e-01
2.489216710349757139e-02 7.066263696031943597e-01 8.265526251250329692e-02
-2.092871268671910381e-02 2.346512082128348275e+00 -8.336321099428564141e-01
-1.294174317261066909e+00 2.516104524063518699e+00 5.031815272014872331e-01
-1.393598544796303740e+00 2.324805438276331238e+00 3.771718005671680918e-01
9.090783805102418125e-01 2.911771185683560415e+00 1.212309475459911745e+00
-3.253945599702417341e-02 1.300657242892898413e+00 1.072052022280838152e-01
1.180639460339173302e-01 3.242945389010760238e+00 -4.486749132092590076e-01
-1.377749223682381841e+00 2.402362334139379385e+00 4.238820559319703141e-01
4.983335176775008021e-04 2.284574894088978070e+00 -2.005679413320139659e+00
-1.043111180940181848e+00 3.043118453727171602e+00 1.195250026470817239e+00
-1.162791741857523320e+00 2.690737781326058897e+00 6.228842506099236953e-01
4.671924721587014662e-02 1.663395504407720216e+00 -1.785903186526949238e-01
1.739423529386024403e-01 2.360306937996007104e+00 5.603473633052421521e-01
8.216344371470778452e-01 2.927151023257227536e+00 1.216854743463865463e+00
-6.460758205014327515e-01 3.342207938989292693e+00 -5.213387241696202379e-01
1.088932886178281406e-01 2.138439351172366720e+00 4.187487223443046025e-01
1.963626060502870474e-01 3.418157396589976749e+00 -1.278925608017889903e+00
-5.458377066062262140e-01 3.364172169257398259e+00 -1.448700023382729851e+00
7.928500990110805002e-01 3.481663867189273009e+00 6.362992260633295594e-01
2.972140886307649832e-01 3.692847846265530531e+00 7.360439453673879306e-01
3.118193343090037706e-01 3.386488005607610319e+00 -1.580249027087672120e+00
-4.026790724662324128e-01 3.314414345296787801e+00 -1.419525419678724143e+00
-1.478808245154251244e+00 2.791061056626371162e+00 7.779792902226158047e-01
-3.695397964318289374e-02 2.995343502212853837e-01 8.689369305503957808e-02
-7.953374660045431366e-02 9.202960471674104248e-01 5.137340466940001210e-03
2.831399594225840477e-02 2.405634632833836939e+00 -1.641726792884087072e+00
-1.164958314210375878e-01 1.955388936011999590e+00 3.872440034804262021e-01
2.833919785696975557e-01 3.637009198904791685e+00 -1.338636102622671853e+00
-7.522890653865325905e-02 3.287148519011741099e-01 -6.119839181290316621e-02
2.035371371759585324e-02 2.471230016790055384e+00 -1.188580661842764563e+00
6.558067851865877207e-02 2.952890747482183054e-01 6.684715559611831281e-02
4.969224809974553958e-02 2.301816984397335453e-01 -8.338390234424877812e-02
-1.437030543918702330e+00 2.775525418196622240e+00 7.197428115306173657e-01
5.202672745788412545e-01 2.472649652578060131e+00 1.427225760709719848e+00
1.309359790331802442e-01 3.920263538143298643e+00 -1.189793062662547474e-01
8.512659794689235726e-01 2.611821320697292226e+00 1.619022430478685326e+00
-6.342897779258266540e-03 1.906472619802792590e+00 -2.328729013360594458e+00
-4.064134814027794418e-01 2.829316057104106275e+00 -2.182057671621841166e+00
1.362479833445708055e-01 3.210534154231549753e+00 -1.342954306393009833e+00
-2.201351428721643466e-01 3.100708784414897945e+00 6.946503148372754621e-01
-8.984873469699949933e-01 2.641450582064562624e+00 5.938379890946150486e-01
-2.686649424170622219e-02 2.172098111342406046e+00 -5.429424172939445459e-01
3.746132139793525440e-01 3.411058230187213880e+00 -1.622606093611026923e+00
2.394926452394336991e-01 3.649636477671757362e+00 -1.807171206191966750e-01
-4.641823058905618360e-02 2.302202953107566508e+00 -8.279224248522828455e-01
7.956238708536758630e-02 3.058838161349860307e+00 -1.293561263790515392e+00
-1.967767978932387918e-01 3.220879646754346570e+00 -1.387742905297265406e+00
6.976904329850751665e-03 3.000193963750573456e+00 -1.239346610617499511e+00
8.948244820807234323e-02 2.035327798682499967e-01 3.487436236912182241e-02
-3.229399562547371483e-01 3.105800971869522975e+00 -4.566811310003167090e-01
9.804260661003440236e-02 2.157323729656684952e-01 -1.444009793690652702e-02
-1.471907328204376197e+00 2.553781703307652418e+00 4.966336563359935452e-01
-4.804612307267910193e-02 1.793304699054516504e+00 2.218363379161951698e-01
1.824887701825215203e-01 3.087145744560772620e+00 -2.298107157243780119e+00
4.569843831196535033e-01 2.580287978131921900e+00 1.032652773357438214e+00
-6.630151667676132954e-01 3.504674808409221409e+00 -5.048261741794111135e-01
-7.277561997098193347e-02 1.535829482212865527e+00 1.873676465494593379e-01
1.975763467393126804e-02 2.659403729456015775e+00 -1.114831874569583103e+00
9.054106777348719381e-02 1.497520228507226436e-01 3.523707674885762781e-02
3.605458951158072023e-02 2.287301958036257243e+00 -7.597295717226237866e-01
-8.098532730260281365e-02 4.360198738263332263e-01 4.040012444348064363e-02
-7.440426898339526363e-02 1.154149865135232877e+00 5.909654918313165389e-03
-9.229948075176538369e-01 3.207661407931877484e+00 6.815563048828332526e-01
-2.698359644582599692e-01 2.937381860320816607e+00 7.275639188205458296e-01
-1.047868856778824354e+00 3.459301127668578335e+00 -5.967186686176076948e-01
-8.146782252930854229e-01 2.757149503130337020e+00 6.614810910569695057e-01
3.334403109413568156e-02 2.244202521885583224e+00 -6.778439518421437437e-01
-1.038457920283292202e+00 3.227503614798186149e+00 -5.786250527275427213e-01
-2.499388513216897062e-02 2.470050674120602974e+00 -1.260888417680458673e+00
-1.175177759449526738e+00 3.230509976500121727e+00 1.020315260145070901e+00
6.112462785815875321e-01 3.133365471834127725e+00 5.788917447852710563e-01
-1.030789848771881401e+00 3.067232768496928053e+00 1.153431044523737681e+00
2.029841223239075843e-01 3.565283257515830861e+00 -1.839149957847896755e-01
3.346434203459684037e-02 1.035602079771609230e+00 7.138545351173705700e-02
3.454736874290626619e-02 2.463112804873590189e+00 -1.380472472443309506e+00
-7.304913923930610176e-02 1.672668169718615427e+00 1.748352303473784675e-01
-3.936732377995878773e-02 2.628074990860076898e+00 -1.140485464669963367e+00
-1.047222167937431059e-02 6.408952344897442810e-01 8.808420708535853738e-02
-1.002583576393549503e-01 3.467665096882094122e+00 1.119905111218428173e+00
2.375159038379719700e-01 3.524452650624534389e+00 -1.261883571739093934e+00
-1.923388461652420223e-01 3.143358634109919780e+00 1.022228530059892782e+00
2.635415723050617623e-02 1.551497852671268385e+00 1.054767702324135858e-01
9.133006647249336529e-02 3.665604481410680848e-01 1.227283300242060921e-02
4.903496797074653052e-03 2.412303494969614270e+00 -1.428139610721779640e+00
-7.249611678177443341e-01 2.618044840806447837e+00 6.506191667196035144e-01
-3.895309071604733438e-03 2.286585130580446545e+00 -1.923787356343494181e+00
3.336241760435321863e-02 1.114630375381782112e+00 6.758179690005325368e-02
-3.553056598818298273e-01 3.366621080269174282e+00 6.337628448637667722e-01
4.581631511015909486e-01 2.920649533391589614e+00 6.158553491848941519e-01
1.973366293074939326e-01 3.520981548845908637e+00 4.802457199446233393e-02
-9.765163344431387893e-01 3.421764151658100772e+00 -5.577306845172042005e-01
-7.759181113290292142e-01 3.402556483777598562e+00 -1.467018946337711460e+00
-4.798437374301134373e-01 3.370099322919624107e+00 -1.419151799488771015e+00
-3.131388468152558335e-01 2.585324921318172375e+00 6.764761941252965816e-01
-6.275271474814063388e-02 5.560761608569259051e-01 -6.217001852527247879e-02
-6.577813936678779394e-02 2.293635133627311973e+00 -4.249936381179060252e-01
-1.289649838022219608e-01 3.215500867774510496e+00 6.866091078098793821e-01
-7.658116435740245503e-03 1.991145412036421369e+00 -2.100050196445855555e+00
-4.716575101242281853e-01 3.474332473476676508e+00 8.241098371101910347e-01
-2.902607966199585721e-01 3.784834997332130246e+00 -6.268355245240291307e-01
-3.522897168418204911e-02 7.785621588769839896e-01 7.755617964225944294e-02
-4.646522335291586314e-02 9.247918403349274508e-01 -6.462881571702824846e-02
6.782008450462181925e-02 2.266481981422920899e+00 -2.406868207234374335e+00
3.051007529686764475e-01 3.458040920472475133e+00 6.924064180733540130e-01
-7.135909021164267563e-04 1.984428969996793635e+00 4.268495783654083220e-01
-3.615820524210028308e-01 3.729321162899108089e+00 -1.971307437871284707e-01
6.284128622757696910e-03 1.364697219386530325e+00 1.370014725271649081e-01
-2.885608811409821062e-01 3.254453655463504624e+00 -4.555797492374428770e-01
-1.114790683255381998e+00 2.596546366396745409e+00 5.480522716157206764e-01
-4.207937131048047896e-02 1.569627527085030172e+00 -2.318593168673080129e-01
-1.400692273570452562e+00 2.848704098369569504e+00 5.668227763454321000e-01
-2.088136768905011487e-01 2.130133836913700396e+00 4.044583786722885099e-01
-1.075205994448577909e-02 2.244003446550973280e+00 -1.904576023574168442e+00
5.341635463532231620e-01 2.458725496823916945e+00 1.470398198642449916e+00
-5.033759916654115818e-01 3.495371342029088169e+00 8.475589852731564289e-01
1.480501423865969446e-01 3.206141631740900610e+00 -4.234119670049057427e-01
2.262825242860405095e-01 3.696571716735875146e+00 9.904526770994981355e-02
9.837097855223310150e-01 2.926178697630709813e+00 1.220597444714394131e+00
-3.684788301817069067e-01 3.556445090324992009e+00 8.473165972490462883e-01
-4.835351848538788078e-02 2.014257987033857278e-01 8.437973641848742212e-02
6.687791199826513822e-01 3.564030555458880034e+00 9.756962186296693762e-01
5.642970843047035584e-02 1.954648426027038477e+00 -3.900901570645234906e-01
4.929124074383470222e-01 3.431779263220135157e+00 9.694791316351266675e-01
6.973815974462853340e-02 1.272462709369721390e+00 9.054135519332231347e-03
2.253607970438507302e-01 3.622386215830140976e+00 -1.811390217306249328e-01
4.720669532237678490e-02 4.460359252736252333e-01 7.891184473319362569e-02
1.195438590230716525e+00 2.950537193183223383e+00 1.248252591504612763e+00
8.969844900218948425e-01 3.312274475493810044e+00 4.314228825775757725e-01
8.301477365960955312e-01 2.907649062940216300e+00 1.193530687762378140e+00
6.092013307727577320e-01 2.969227248685313736e+00 1.194483918366856301e+00
1.572688824338931424e-01 3.692717323166747168e+00 -7.798229863373411508e-01
-5.548460140532067431e-02 2.569252521363400987e+00 -1.729864767537208525e+00
1.962291343786643216e-01 3.406824369224580540e+00 -5.390813138378097724e-01
-3.163555040809572505e-01 3.881626406353679837e+00 -7.154603352916567571e-01
1.566384886275618282e-01 2.221439802402456642e+00 5.299357013252478099e-01
5.853507856972385293e-01 3.666023208269766798e+00 -6.660656510682080311e-01
6.035164934078675048e-01 2.883202059080331559e+00 1.131567536842946753e+00
-6.639514887488324746e-01 2.580340150057304882e+00 5.797460559712883654e-01
2.902490925128551891e-01 3.642305001790567154e+00 -1.345144180918985910e+00
-3.024140697916130605e-02 4.895758363597427221e-01 8.650009828420346381e-02
-2.227164338036034252e-01 3.543632622838768675e+00 -1.548502087536112626e+00
8.656566768561109460e-02 2.317495397917165079e+00 -2.438668769404654935e+00
-6.562644596615941905e-01 2.600266048412495312e+00 6.031532499872055419e-01
4.494388807607938019e-01 2.935643309953474667e+00 5.782208253016676291e-01
4.120391139923323953e-02 2.671380878463730513e-01 -8.565812455532662018e-02
2.531206459846583878e-01 2.385506340501687639e+00 5.432613024883609087e-01
-5.515015917614470714e-02 1.992791471926318003e+00 3.492216877012717657e-01
2.696516655971508553e-02 2.687930610855657321e+00 -1.165597816945517451e+00
7.078736565118607382e-01 2.491226141346099876e+00 1.740966810028639955e+00
2.121379005774089999e-01 3.467454243106406597e+00 -1.304528423089694078e+00
-8.803129164704029744e-03 2.908598495275677820e+00 -1.209077333165074375e+00
4.664848761757753315e-01 3.534714691825099120e+00 1.123272483442591119e+00
-2.218196057006726896e-01 2.824381901434017905e+00 1.452922674653034152e+00
-2.191387438473189897e-01 3.157257776153579165e+00 1.432624911014450220e+00
-1.013767626653063747e+00 2.648652764835536466e+00 5.919047223060676099e-01
3.906432897899202172e-02 9.177161411843809402e-01 -7.055363965770630741e-02
-4.666714070760700356e-02 1.834581691249183244e+00 -2.806979081153772593e-01
7.549139864307298498e-02 3.085968662256429962e+00 -1.265757409945554191e+00
9.598128413504051215e-01 3.354215442774617806e+00 4.230866123948899826e-01
1.434111762610692717e-02 2.747175979673598611e+00 -2.007129351410891882e+00
-7.446598201174732257e-01 3.738273702267695509e+00 -6.918604702243460469e-01
2.215934325192084331e-02 2.262597918905300265e+00 -6.877015393464229742e-01
5.967813257480573952e-02 1.782936606631699838e+00 -2.909671675873235497e-01
1.736003392829796668e-02 1.455493306775940354e+00 -1.885134638007220087e-01
-9.006954141110663503e-01 2.912468193420293172e+00 7.761674944245537944e-01
3.099729797172046108e-03 1.065632270797138403e+00 -7.639213967984330445e-02
-8.363905110439840973e-01 3.744432281183165845e+00 -7.486589998488331066e-01
-4.891354039490887484e-02 1.442999248797296907e+00 1.614091139664620145e-01
4.521923724719024290e-02 1.604791249386556595e+00 -2.483950953460325739e-01
